ply
format ascii 1.0
element vertex 797
property float x 
property float y
property float z
property float nx 
property float ny
property float nz
end_header
0.142638 -0.535105 0.283564 -0.036614 -0.840082 -0.541223 
0.132454 -0.526633 0.278188 0.017300 -0.898201 -0.439246 
0.121315 -0.518102 0.272319 0.039200 -0.924396 -0.379414 
0.108731 -0.509467 0.265676 -0.021511 -0.898231 -0.438999 
0.089586 -0.500207 0.255575 -0.105472 -0.858063 -0.502598 
0.070816 -0.491055 0.245669 -0.202215 -0.783858 -0.587091 
0.065870 -0.483352 0.243066 -0.283304 -0.687574 -0.668565 
0.070710 -0.476600 0.245626 -0.345078 -0.559333 -0.753703 
0.076657 -0.469946 0.248763 -0.362605 -0.504899 -0.783324 
0.083807 -0.463374 0.252546 -0.441799 -0.286357 -0.850184 
0.092518 -0.456915 0.257150 -0.469571 -0.125297 -0.873958 
0.118528 -0.451961 0.270887 -0.496845 0.186374 -0.847592 
-0.142180 -0.279058 0.133340 0.116892 -0.590525 -0.798510 
-0.156650 -0.271617 0.125704 0.091212 -0.582846 -0.807448 
-0.168165 -0.264356 0.119627 0.058819 -0.559083 -0.827023 
-0.175262 -0.257318 0.115880 0.043534 -0.547099 -0.835936 
-0.180342 -0.250385 0.113207 0.023672 -0.531846 -0.846510 
-0.185607 -0.243460 0.110427 -0.006046 -0.485575 -0.874174 
-0.192460 -0.236505 0.106820 -0.036095 -0.474088 -0.879738 
-0.198406 -0.229610 0.103681 -0.099479 -0.414291 -0.904692 
-0.201842 -0.222811 0.101874 -0.142619 -0.385991 -0.911412 
-0.202553 -0.216101 0.101497 -0.192446 -0.309544 -0.931208 
-0.197801 -0.209539 0.104012 -0.196524 -0.253528 -0.947154 
-0.192686 -0.202961 0.106717 -0.231351 -0.194220 -0.953287 
-0.186308 -0.196398 0.110088 -0.254340 -0.247133 -0.935006 
-0.178352 -0.189840 0.114290 -0.281790 -0.338554 -0.897761 
-0.170570 -0.183245 0.118405 -0.331459 -0.473983 -0.815766 
-0.166673 -0.176554 0.120466 -0.282811 -0.578839 -0.764828 
-0.167662 -0.169785 0.119951 -0.316495 -0.662552 -0.678864 
-0.170709 -0.162986 0.118347 -0.313628 -0.724790 -0.613447 
-0.175005 -0.156195 0.116084 -0.322124 -0.772534 -0.547201 
-0.179469 -0.149412 0.113729 -0.298853 -0.830046 -0.470862 
-0.184402 -0.142645 0.111132 -0.303252 -0.854608 -0.421526 
-0.188496 -0.135901 0.108970 -0.313348 -0.869814 -0.381100 
-0.192946 -0.129171 0.106622 -0.304478 -0.891934 -0.334291 
-0.198347 -0.122465 0.103781 -0.297391 -0.905506 -0.302687 
-0.204100 -0.115773 0.100746 -0.300119 -0.907133 -0.295022 
-0.210121 -0.109106 0.097571 -0.297466 -0.909129 -0.291545 
-0.214866 -0.102458 0.095067 -0.303497 -0.904643 -0.299184 
-0.219381 -0.095820 0.092687 -0.315962 -0.895911 -0.312268 
-0.223645 -0.089204 0.090440 -0.334730 -0.883707 -0.327139 
-0.227361 -0.082601 0.088484 -0.363713 -0.867208 -0.340094 
-0.230735 -0.075999 0.086708 -0.394655 -0.848459 -0.352655 
-0.233475 -0.069412 0.085266 -0.432226 -0.825357 -0.363273 
-0.237048 -0.062840 0.083381 -0.463434 -0.804993 -0.370425 
-0.239893 -0.056277 0.081878 -0.487746 -0.789254 -0.373072 
-0.241324 -0.049688 0.081132 -0.503149 -0.779507 -0.373109 
-0.242204 -0.043092 0.080670 -0.512865 -0.773195 -0.373015 
-0.242129 -0.036479 0.080712 -0.509265 -0.773853 -0.376565 
-0.242583 -0.029882 0.080481 -0.509359 -0.774336 -0.375446 
-0.243703 -0.023301 0.079890 -0.509311 -0.774433 -0.375310 
-0.247980 -0.016828 0.077637 -0.511975 -0.770669 -0.379410 
-0.252369 -0.010370 0.075320 -0.520967 -0.764360 -0.379932 
-0.256051 -0.003905 0.073381 -0.531685 -0.754595 -0.384575 
-0.258216 0.002599 0.072243 -0.548584 -0.732873 -0.402434 
-0.259907 0.009120 0.071358 -0.573737 -0.700834 -0.423860 
-0.260599 0.015664 0.070991 -0.609521 -0.659409 -0.440075 
-0.260205 0.022260 0.071209 -0.643710 -0.612961 -0.458167 
-0.259359 0.028874 0.071652 -0.676182 -0.569566 -0.467304 
-0.256965 0.035563 0.072921 -0.703489 -0.529629 -0.473917 
-0.255125 0.042229 0.073896 -0.725558 -0.497460 -0.475499 
-0.254898 0.048825 0.074022 -0.747227 -0.473119 -0.466702 
-0.253822 0.055468 0.074598 -0.762863 -0.457087 -0.457289 
-0.252611 0.062127 0.075241 -0.774994 -0.448386 -0.445349 
-0.251119 0.068800 0.076033 -0.785486 -0.444119 -0.431011 
-0.250468 0.075436 0.076379 -0.797852 -0.435469 -0.416892 
-0.249866 0.082063 0.076702 -0.809697 -0.423232 -0.406530 
-0.249666 0.088676 0.076814 -0.822488 -0.410057 -0.394166 
-0.249335 0.095294 0.076991 -0.834497 -0.388423 -0.390822 
-0.249152 0.101900 0.077086 -0.844156 -0.364598 -0.393027 
-0.248509 0.108542 0.077429 -0.854561 -0.335823 -0.396166 
-0.247541 0.115208 0.077951 -0.863355 -0.307803 -0.399843 
-0.245474 0.121958 0.079047 -0.873429 -0.270741 -0.404749 
-0.243514 0.128706 0.080083 -0.881874 -0.237262 -0.407438 
-0.241119 0.135502 0.081351 -0.888509 -0.188015 -0.418574 
-0.237341 0.142412 0.083347 -0.893099 -0.136940 -0.428510 
-0.232924 0.149382 0.085688 -0.892865 -0.087240 -0.441794 
-0.228150 0.156398 0.088213 -0.892150 -0.042541 -0.449732 
-0.222722 0.163490 0.091084 -0.887951 -0.004545 -0.459916 
-0.217406 0.170597 0.093890 -0.885945 0.025448 -0.463092 
-0.212105 0.177719 0.096697 -0.889871 0.042953 -0.454185 
-0.207116 0.184841 0.099330 -0.896989 0.044726 -0.439784 
-0.203233 0.191871 0.101387 -0.907007 0.057767 -0.417136 
-0.199355 0.198925 0.103440 -0.915130 0.076968 -0.395747 
-0.193547 0.206176 0.106509 -0.930537 0.085328 -0.356118 
-0.185806 0.213633 0.110604 -0.955936 0.102327 -0.275165 
-0.177344 0.221195 0.115078 -0.981664 0.083800 -0.171217 
-0.169558 0.228719 0.119196 -0.996068 0.077804 -0.042349 
-0.163809 0.236069 0.122235 -0.995031 0.033490 0.093761 
-0.160330 0.243197 0.124071 -0.978341 -0.032785 0.204387 
-0.157917 0.250227 0.125350 -0.950679 -0.095563 0.295087 
-0.156686 0.257140 0.126005 -0.917129 -0.142828 0.372121 
-0.155849 0.264011 0.126451 -0.875183 -0.214275 0.433750 
-0.155226 0.270865 0.126784 -0.841660 -0.238807 0.484335 
-0.155212 0.277651 0.126796 -0.804754 -0.284720 0.520868 
-0.155198 0.284429 0.126806 -0.765211 -0.327638 0.554171 
-0.155270 0.291207 0.126773 -0.745011 -0.349496 0.568164 
-0.155617 0.297947 0.126596 -0.695815 -0.404656 0.593377 
-0.156512 0.304619 0.126127 -0.673669 -0.429614 0.601334 
-0.157707 0.311254 0.125500 -0.610584 -0.512098 0.604104 
-0.159570 0.317795 0.124521 -0.541645 -0.571341 0.616595 
-0.162501 0.324186 0.122974 -0.510345 -0.609127 0.607053 
-0.166278 0.330464 0.120987 -0.273610 -0.782113 0.559856 
-0.174015 0.336200 0.116903 -0.185507 -0.854650 0.484935 
-0.194851 0.340146 0.105902 0.068484 -0.954997 0.288606 
-0.207069 0.345191 0.099457 0.142614 -0.973598 0.178242 
-0.217873 0.350376 0.093753 0.090704 -0.983868 0.154201 
-0.227492 0.355689 0.088685 -0.011211 -0.992673 0.120319 
-0.236130 0.361100 0.084122 -0.136363 -0.983126 0.121942 
-0.243031 0.366733 0.080481 -0.227844 -0.966625 0.117155 
-0.247785 0.372647 0.077981 -0.320601 -0.941873 0.100459 
-0.250990 0.378773 0.076288 -0.396135 -0.913266 0.094988 
-0.253955 0.384922 0.074725 -0.471265 -0.877652 0.087398 
-0.256940 0.391063 0.073151 -0.545054 -0.835343 0.071559 
-0.259629 0.397227 0.071743 -0.616546 -0.784978 0.060660 
-0.262117 0.403422 0.070425 -0.666458 -0.744306 0.042916 
-0.264075 0.409684 0.069399 -0.713924 -0.700078 0.014219 
-0.265679 0.416001 0.068558 -0.741329 -0.670949 0.016123 
-0.266719 0.422400 0.068009 -0.776084 -0.630627 0.002175 
-0.266657 0.428975 0.068043 -0.807337 -0.589588 -0.024325 
-0.265614 0.435708 0.068601 -0.846008 -0.531862 -0.037347 
-0.262667 0.442768 0.070166 -0.879717 -0.470611 -0.067990 
0.238649 -0.696215 0.325626 0.126314 -0.483627 -0.866112 
0.203591 -0.683500 0.307206 0.002410 -0.481155 -0.876632 
0.182071 -0.672892 0.295892 -0.082290 -0.503407 -0.860122 
0.170742 -0.663832 0.289946 -0.158165 -0.601179 -0.783306 
0.164527 -0.655540 0.286683 -0.169027 -0.464704 -0.869185 
0.160770 -0.647615 0.284707 -0.210554 -0.574935 -0.790644 
0.164214 -0.640699 0.286526 -0.259186 -0.333602 -0.906385 
0.176574 -0.634975 0.293023 -0.162872 -0.283105 -0.945158 
0.190611 -0.629436 0.300408 -0.167412 -0.289092 -0.942550 
0.198599 -0.623037 0.304618 -0.175243 -0.277912 -0.944486 
0.200481 -0.615810 0.305607 -0.158823 -0.334520 -0.928909 
0.200962 -0.608405 0.305868 -0.188086 -0.439992 -0.878083 
0.200202 -0.600841 0.305467 -0.178679 -0.512563 -0.839853 
0.199213 -0.593248 0.304952 -0.174029 -0.565705 -0.806036 
0.196209 -0.585414 0.303378 -0.164088 -0.606882 -0.777670 
0.192604 -0.577519 0.301486 -0.145799 -0.664567 -0.732867 
0.188029 -0.569520 0.299084 -0.130488 -0.698390 -0.703723 
0.182280 -0.561409 0.296073 -0.105174 -0.731392 -0.673798 
0.175261 -0.553170 0.292388 -0.084214 -0.784908 -0.613863 
0.166991 -0.544826 0.288047 -0.040907 -0.837059 -0.545582 
0.157101 -0.536332 0.282844 -0.027782 -0.857487 -0.513755 
0.146162 -0.527756 0.277101 0.032342 -0.905777 -0.422520 
0.133282 -0.519022 0.270335 0.042858 -0.924220 -0.379447 
0.117200 -0.510002 0.261884 -0.012403 -0.904449 -0.426402 
0.102862 -0.501232 0.254356 -0.073468 -0.865317 -0.495814 
0.082223 -0.491877 0.243508 -0.190885 -0.766992 -0.612607 
0.079382 -0.484360 0.242015 -0.266654 -0.690142 -0.672756 
0.083789 -0.477549 0.244341 -0.361561 -0.563445 -0.742835 
0.090216 -0.470916 0.247719 -0.397220 -0.410787 -0.820653 
0.098425 -0.464420 0.252040 -0.445994 -0.304592 -0.841614 
0.110366 -0.458237 0.258327 -0.489347 -0.109009 -0.865250 
-0.152216 -0.251331 0.120387 0.038975 -0.484418 -0.873968 
-0.157399 -0.244366 0.117664 0.040789 -0.440861 -0.896649 
-0.157793 -0.237581 0.117463 0.032797 -0.410803 -0.911135 
-0.160837 -0.230714 0.115868 -0.012016 -0.381732 -0.924195 
-0.167378 -0.223752 0.112433 -0.037626 -0.330759 -0.942965 
-0.169156 -0.216952 0.111505 -0.076584 -0.281750 -0.956427 
-0.168393 -0.210227 0.111907 -0.123182 -0.301371 -0.945517 
-0.166378 -0.203523 0.112970 -0.186464 -0.331608 -0.924807 
-0.160569 -0.196898 0.116031 -0.245816 -0.429337 -0.869048 
-0.155223 -0.190244 0.118843 -0.229765 -0.550029 -0.802918 
-0.150229 -0.183562 0.121471 -0.204200 -0.700474 -0.683841 
-0.151804 -0.176747 0.120654 -0.198545 -0.777124 -0.597210 
-0.156658 -0.169896 0.118103 -0.225432 -0.790026 -0.570122 
-0.162162 -0.163053 0.115212 -0.264988 -0.807045 -0.527693 
-0.166804 -0.156241 0.112776 -0.269543 -0.839201 -0.472323 
-0.171923 -0.149445 0.110093 -0.260171 -0.880054 -0.397263 
-0.177598 -0.142669 0.107108 -0.282003 -0.884501 -0.371662 
-0.182649 -0.135910 0.104458 -0.276553 -0.904641 -0.324259 
-0.187298 -0.129180 0.102021 -0.289496 -0.906079 -0.308567 
-0.192315 -0.122459 0.099389 -0.288942 -0.913925 -0.285052 
-0.197517 -0.115768 0.096655 -0.297556 -0.909872 -0.289125 
-0.203650 -0.109092 0.093432 -0.302135 -0.906469 -0.295010 
-0.208421 -0.102437 0.090931 -0.309654 -0.898607 -0.310841 
-0.212353 -0.095791 0.088868 -0.318187 -0.889237 -0.328656 
-0.216143 -0.089159 0.086874 -0.331206 -0.877258 -0.347454 
-0.219842 -0.082541 0.084937 -0.349476 -0.864106 -0.362199 
-0.223487 -0.075940 0.083025 -0.376126 -0.848284 -0.372750 
-0.226635 -0.069346 0.081370 -0.415974 -0.825721 -0.380987 
-0.229650 -0.062766 0.079790 -0.451470 -0.805808 -0.383207 
-0.233235 -0.056203 0.077908 -0.474004 -0.791456 -0.385899 
-0.235396 -0.049621 0.076781 -0.490882 -0.781478 -0.385133 
-0.236672 -0.043033 0.076111 -0.499416 -0.776234 -0.384767 
-0.236824 -0.036420 0.076031 -0.502852 -0.773727 -0.385338 
-0.236815 -0.029801 0.076040 -0.502995 -0.772626 -0.387358 
-0.237291 -0.023197 0.075797 -0.503802 -0.768733 -0.393996 
-0.240729 -0.016694 0.073998 -0.506746 -0.763846 -0.399687 
-0.245160 -0.010228 0.071667 -0.514176 -0.752845 -0.410912 
-0.249302 -0.003770 0.069498 -0.519258 -0.740853 -0.426039 
-0.251481 0.002741 0.068352 -0.535489 -0.718702 -0.443530 
-0.253259 0.009263 0.067425 -0.559158 -0.689477 -0.460398 
-0.254161 0.015812 0.066953 -0.591595 -0.651622 -0.474768 
-0.253893 0.022403 0.067099 -0.626877 -0.608110 -0.487062 
-0.252941 0.029030 0.067604 -0.660603 -0.575866 -0.481647 
-0.250148 0.035742 0.069073 -0.685713 -0.544301 -0.483254 
-0.248255 0.042424 0.070075 -0.713803 -0.514955 -0.474666 
-0.247284 0.049067 0.070588 -0.737887 -0.494506 -0.459333 
-0.247093 0.055672 0.070687 -0.759133 -0.475621 -0.444412 
-0.247027 0.062276 0.070733 -0.773884 -0.466056 -0.428831 
-0.246243 0.068911 0.071146 -0.785069 -0.458574 -0.416385 
-0.246021 0.075524 0.071270 -0.795371 -0.447559 -0.408750 
-0.245973 0.082128 0.071298 -0.807984 -0.437399 -0.394772 
-0.245891 0.088733 0.071343 -0.817259 -0.414263 -0.400592 
-0.245534 0.095351 0.071534 -0.826930 -0.393199 -0.401972 
-0.245238 0.101972 0.071694 -0.837220 -0.366728 -0.405676 
-0.244239 0.108637 0.072222 -0.848146 -0.340648 -0.405721 
-0.242935 0.115334 0.072912 -0.857672 -0.309464 -0.410648 
-0.240186 0.122129 0.074367 -0.867298 -0.267912 -0.419547 
-0.237454 0.128939 0.075805 -0.874621 -0.231159 -0.426151 
-0.234257 0.135803 0.077493 -0.881625 -0.177794 -0.437183 
-0.229926 0.142758 0.079772 -0.882707 -0.123636 -0.453368 
-0.225302 0.149751 0.082207 -0.881580 -0.077709 -0.465594 
-0.220522 0.156782 0.084719 -0.880621 -0.032000 -0.472741 
-0.215527 0.163852 0.087356 -0.878751 0.000105 -0.477282 
-0.210488 0.170936 0.090006 -0.883381 0.013600 -0.468460 
-0.205391 0.178050 0.092696 -0.892957 0.028877 -0.449214 
-0.200331 0.185179 0.095357 -0.903024 0.036238 -0.428060 
-0.196089 0.192257 0.097593 -0.916210 0.035199 -0.399150 
-0.192361 0.199303 0.099554 -0.928028 0.054879 -0.368445 
-0.186588 0.206552 0.102596 -0.949785 0.061403 -0.306820 
-0.179731 0.213933 0.106209 -0.971539 0.049227 -0.231705 
-0.173038 0.221328 0.109727 -0.991820 0.034322 -0.122944 
-0.167158 0.228662 0.112825 -0.999818 0.005671 -0.018208 
-0.162534 0.235890 0.115260 -0.991992 -0.033104 0.121894 
-0.159911 0.242926 0.116643 -0.975702 -0.089766 0.199867 
-0.158358 0.249857 0.117466 -0.941906 -0.146192 0.302390 
-0.157259 0.256749 0.118046 -0.914946 -0.192240 0.354847 
-0.156521 0.263604 0.118435 -0.880096 -0.239020 0.410243 
-0.156041 0.270435 0.118698 -0.851336 -0.275082 0.446715 
-0.156040 0.277206 0.118701 -0.809708 -0.322330 0.490384 
-0.155998 0.283992 0.118725 -0.773567 -0.359185 0.522091 
-0.156056 0.290755 0.118700 -0.752379 -0.380043 0.538045 
-0.156596 0.297465 0.118417 -0.714078 -0.436431 0.547377 
-0.157298 0.304152 0.118054 -0.697767 -0.459203 0.549776 
-0.158192 0.310816 0.117585 -0.605061 -0.550843 0.574868 
-0.160225 0.317328 0.116522 -0.584355 -0.590350 0.556791 
-0.162933 0.323749 0.115104 -0.527815 -0.647271 0.549957 
-0.166811 0.330004 0.113066 -0.328105 -0.805782 0.493012 
-0.173454 0.335885 0.109579 -0.200026 -0.889789 0.410203 
-0.191307 0.340226 0.100199 0.018977 -0.970362 0.240911 
-0.203276 0.345302 0.093902 0.104118 -0.984688 0.139829 
-0.214348 0.350455 0.088090 0.076815 -0.995409 0.057109 
-0.223000 0.355905 0.083537 -0.003904 -0.998815 0.048519 
-0.231442 0.361347 0.079107 -0.108447 -0.993447 0.036079 
-0.237975 0.367032 0.075677 -0.190403 -0.981407 0.024261 
-0.243307 0.372871 0.072878 -0.306390 -0.951571 0.025290 
-0.247711 0.378828 0.070561 -0.379549 -0.924880 0.023253 
-0.251048 0.384925 0.068811 -0.460237 -0.887754 0.008733 
-0.254138 0.391044 0.067193 -0.535147 -0.844673 -0.012112 
-0.256972 0.397192 0.065703 -0.596434 -0.802435 -0.019141 
-0.259579 0.403364 0.064335 -0.658671 -0.751428 -0.038850 
-0.261230 0.409673 0.063472 -0.700261 -0.711731 -0.055461 
-0.262448 0.416050 0.062841 -0.732690 -0.676721 -0.072209 
-0.262927 0.422541 0.062589 -0.770887 -0.632156 -0.078167 
-0.262837 0.429123 0.062637 -0.803741 -0.586412 -0.100603 
-0.261118 0.435971 0.063550 -0.846497 -0.513121 -0.141951 
-0.256851 0.443257 0.065800 -0.881573 -0.438732 -0.174195 
0.223771 -0.693482 0.309325 0.047141 -0.480436 -0.875762 
0.201104 -0.682632 0.297463 -0.047913 -0.447014 -0.893243 
0.194528 -0.674219 0.294028 -0.084054 -0.434384 -0.896797 
0.189607 -0.666061 0.291454 -0.104282 -0.390923 -0.914497 
0.187425 -0.658309 0.290317 -0.156294 -0.303713 -0.939857 
0.198288 -0.652385 0.296005 -0.117520 -0.303408 -0.945586 
0.215718 -0.647324 0.305140 -0.091749 -0.315419 -0.944507 
0.221673 -0.640639 0.308257 -0.115034 -0.324214 -0.938965 
0.222699 -0.633272 0.308798 -0.151756 -0.335561 -0.929714 
0.222631 -0.625753 0.308769 -0.154964 -0.424290 -0.892168 
0.222399 -0.618219 0.308649 -0.162256 -0.467114 -0.869183 
0.221006 -0.610535 0.307923 -0.172991 -0.537839 -0.825108 
0.219574 -0.602851 0.307178 -0.180352 -0.552852 -0.813529 
0.217338 -0.595078 0.306014 -0.165036 -0.591398 -0.789310 
0.212952 -0.587040 0.303723 -0.150493 -0.634190 -0.758389 
0.208197 -0.578988 0.301241 -0.138622 -0.700206 -0.700354 
0.203442 -0.570944 0.298758 -0.119140 -0.735538 -0.666925 
0.197217 -0.562749 0.295497 -0.104023 -0.750690 -0.652414 
0.189784 -0.554450 0.291616 -0.072107 -0.808276 -0.584371 
0.181268 -0.546054 0.287160 -0.040632 -0.850388 -0.524586 
0.171095 -0.537506 0.281841 -0.002215 -0.876599 -0.481218 
0.159150 -0.528803 0.275593 0.030486 -0.907045 -0.419933 
0.145564 -0.519978 0.268483 0.046438 -0.921208 -0.386290 
0.127156 -0.510697 0.258852 -0.019073 -0.902717 -0.429811 
0.112760 -0.501904 0.251320 -0.101128 -0.881567 -0.461103 
0.093143 -0.492646 0.241051 -0.187092 -0.762783 -0.619001 
0.092680 -0.485347 0.240816 -0.276801 -0.681823 -0.677125 
0.096801 -0.478490 0.242973 -0.386934 -0.470589 -0.792987 
0.104241 -0.471933 0.246876 -0.391695 -0.394570 -0.831198 
0.114975 -0.465654 0.252500 -0.430888 -0.289402 -0.854741 
-0.030698 -0.248808 0.176358 0.248293 -0.966794 0.060505 
-0.048169 -0.241196 0.167221 0.121754 -0.986710 0.107617 
-0.060867 -0.233814 0.160570 0.070835 -0.990333 0.119274 
-0.075397 -0.226419 0.152970 -0.001652 -0.994621 0.103574 
-0.086566 -0.219182 0.147128 -0.047864 -0.996703 0.065516 
-0.095476 -0.212047 0.142465 -0.070558 -0.996442 0.046090 
-0.107448 -0.204868 0.136204 -0.081916 -0.996342 -0.024331 
-0.113339 -0.197876 0.133127 -0.058724 -0.990050 -0.127878 
-0.122189 -0.190847 0.128494 -0.053109 -0.965214 -0.256017 
-0.133371 -0.183806 0.122644 -0.077250 -0.888385 -0.452555 
-0.140171 -0.176888 0.119086 -0.126230 -0.882738 -0.452592 
-0.145111 -0.170014 0.116503 -0.161509 -0.877528 -0.451509 
-0.153795 -0.163114 0.111961 -0.197231 -0.876496 -0.439153 
-0.159387 -0.156288 0.109043 -0.240615 -0.863894 -0.442485 
-0.164599 -0.149482 0.106312 -0.231024 -0.908339 -0.348639 
-0.170397 -0.142694 0.103283 -0.239753 -0.917988 -0.315939 
-0.176059 -0.135926 0.100320 -0.267958 -0.914852 -0.302067 
-0.181309 -0.129183 0.097580 -0.275068 -0.920695 -0.276874 
-0.185738 -0.122461 0.095259 -0.288731 -0.917864 -0.272327 
-0.190614 -0.115753 0.092715 -0.300250 -0.912132 -0.279044 
-0.196084 -0.109071 0.089856 -0.313541 -0.903887 -0.291003 
-0.201077 -0.102409 0.087246 -0.322023 -0.893865 -0.311942 
-0.205073 -0.095754 0.085158 -0.330181 -0.883086 -0.333378 
-0.207916 -0.089114 0.083672 -0.339410 -0.872283 -0.352028 
-0.211356 -0.082482 0.081872 -0.342405 -0.864061 -0.368996 
-0.215085 -0.075872 0.079926 -0.364862 -0.849050 -0.382089 
-0.218586 -0.069270 0.078096 -0.394642 -0.830913 -0.392228 
-0.221960 -0.062684 0.076336 -0.429933 -0.812076 -0.394577 
-0.225493 -0.056104 0.074487 -0.462753 -0.796174 -0.389830 
-0.227941 -0.049524 0.073208 -0.482028 -0.784394 -0.390352 
-0.230043 -0.042944 0.072111 -0.494028 -0.777866 -0.388409 
-0.231107 -0.036347 0.071565 -0.502824 -0.772235 -0.388359 
-0.231065 -0.029728 0.071590 -0.502230 -0.770416 -0.392715 
-0.231196 -0.023109 0.071520 -0.505969 -0.765550 -0.397402 
-0.233186 -0.016551 0.070487 -0.510958 -0.756822 -0.407606 
-0.237293 -0.010063 0.068335 -0.517484 -0.743798 -0.423055 
-0.242320 -0.003628 0.065707 -0.527011 -0.728651 -0.437411 
-0.244516 0.002892 0.064562 -0.536867 -0.708324 -0.458314 
-0.246302 0.009418 0.063630 -0.554974 -0.684418 -0.472839 
-0.247514 0.015963 0.063004 -0.582767 -0.650456 -0.487124 
-0.247306 0.022560 0.063118 -0.612210 -0.616465 -0.495147 
-0.246507 0.029187 0.063539 -0.642085 -0.590390 -0.489047 
-0.244384 0.035877 0.064657 -0.673806 -0.561511 -0.480303 
-0.242794 0.042550 0.065489 -0.703591 -0.536009 -0.466535 
-0.241828 0.049193 0.066000 -0.729824 -0.513971 -0.450767 
-0.241868 0.055797 0.065984 -0.752258 -0.495431 -0.434346 
-0.241975 0.062387 0.065936 -0.768302 -0.483148 -0.419858 
-0.242106 0.068983 0.065866 -0.782863 -0.470174 -0.407508 
-0.242280 0.075572 0.065781 -0.793772 -0.456164 -0.402294 
-0.242424 0.082162 0.065704 -0.804379 -0.437819 -0.401609 
-0.242423 0.088766 0.065710 -0.814256 -0.419988 -0.400745 
-0.242046 0.095386 0.065911 -0.824343 -0.395496 -0.405023 
-0.241297 0.102037 0.066313 -0.835046 -0.370770 -0.406484 
-0.239613 0.108755 0.067193 -0.842187 -0.338766 -0.419475 
-0.237537 0.115505 0.068286 -0.850214 -0.306451 -0.428046 
-0.234124 0.122362 0.070082 -0.857658 -0.268767 -0.438391 
-0.230665 0.129224 0.071892 -0.865813 -0.224396 -0.447230 
-0.226814 0.136143 0.073914 -0.872659 -0.170668 -0.457536 
-0.222401 0.143112 0.076228 -0.873764 -0.113804 -0.472849 
-0.218149 0.150091 0.078459 -0.874625 -0.067773 -0.480041 
-0.213841 0.157091 0.080719 -0.875273 -0.027201 -0.482862 
-0.209127 0.164137 0.083190 -0.880143 -0.009373 -0.474616 
-0.204064 0.171236 0.085844 -0.891216 0.004195 -0.453562 
-0.198781 0.178366 0.088618 -0.903342 0.010088 -0.428802 
-0.193157 0.185557 0.091569 -0.915740 0.017747 -0.401381 
-0.188026 0.192725 0.094257 -0.933042 0.014167 -0.359491 
-0.183851 0.199815 0.096443 -0.949496 0.011248 -0.313578 
-0.179278 0.206967 0.098843 -0.965368 0.010688 -0.260671 
-0.174110 0.214188 0.101559 -0.982869 -0.000231 -0.184305 
-0.168845 0.221446 0.104314 -0.997230 -0.022814 -0.070786 
-0.164279 0.228650 0.106711 -0.998661 -0.043309 0.028302 
-0.160989 0.235741 0.108437 -0.984176 -0.112728 0.136706 
-0.159248 0.242679 0.109354 -0.963958 -0.159360 0.213047 
-0.157821 0.249601 0.110106 -0.936388 -0.202813 0.286436 
-0.157178 0.256434 0.110448 -0.908795 -0.241694 0.340111 
-0.156734 0.263250 0.110683 -0.877823 -0.282914 0.386505 
-0.156256 0.270074 0.110934 -0.850992 -0.320103 0.416351 
-0.156227 0.276845 0.110953 -0.815684 -0.359167 0.453495 
-0.156216 0.283616 0.110970 -0.794648 -0.384812 0.469527 
-0.156108 0.290394 0.111029 -0.771415 -0.410795 0.485970 
-0.156612 0.297104 0.110763 -0.734634 -0.460391 0.498350 
-0.157270 0.303791 0.110430 -0.698531 -0.503573 0.508399 
-0.158098 0.310454 0.109994 -0.641971 -0.582973 0.498011 
-0.159825 0.317005 0.109101 -0.593581 -0.641536 0.485894 
-0.162875 0.323373 0.107503 -0.530187 -0.714840 0.455968 
-0.167232 0.329559 0.105225 -0.386355 -0.830235 0.401798 
-0.173692 0.335456 0.101847 -0.225911 -0.920569 0.318619 
-0.184933 0.340684 0.095967 -0.066934 -0.979848 0.188201 
-0.197955 0.345625 0.089155 0.061393 -0.994863 0.080487 
-0.208160 0.350899 0.083808 0.080011 -0.996692 0.014298 
-0.217660 0.356242 0.078840 0.011775 -0.999413 -0.032202 
-0.225941 0.361716 0.074509 -0.076687 -0.996259 -0.039860 
-0.232681 0.367379 0.070982 -0.167652 -0.984593 -0.049725 
-0.238464 0.373154 0.067959 -0.263229 -0.963245 -0.053587 
-0.243703 0.378984 0.065215 -0.362037 -0.930263 -0.059499 
-0.247151 0.385064 0.063417 -0.430764 -0.899098 -0.077889 
-0.250584 0.391138 0.061621 -0.513840 -0.853326 -0.088339 
-0.253356 0.397295 0.060179 -0.585126 -0.803754 -0.107737 
-0.255777 0.403497 0.058911 -0.637381 -0.760373 -0.124815 
-0.257783 0.409760 0.057861 -0.679909 -0.723325 -0.120515 
-0.258490 0.416213 0.057494 -0.724118 -0.674726 -0.142821 
-0.258766 0.422741 0.057361 -0.751289 -0.642301 -0.151707 
-0.257920 0.429445 0.057804 -0.798399 -0.571698 -0.188999 
-0.256185 0.436308 0.058718 -0.831932 -0.509102 -0.220691 
-0.250694 0.443800 0.061595 -0.872467 -0.397268 -0.284571 
0.250164 -0.696914 0.314613 -0.239024 0.445803 0.862629 
0.224772 -0.685620 0.301381 0.035935 -0.409708 -0.911509 
0.218980 -0.677283 0.298372 0.020697 -0.374010 -0.927194 
0.232105 -0.671667 0.305216 -0.005039 -0.355129 -0.934804 
0.247836 -0.666372 0.313416 -0.061799 -0.395565 -0.916356 
0.250917 -0.659251 0.315029 -0.057862 -0.395631 -0.916585 
0.251269 -0.651748 0.315217 -0.074731 -0.387837 -0.918694 
0.249427 -0.643936 0.314258 -0.097206 -0.410194 -0.906804 
0.247403 -0.636116 0.313209 -0.120678 -0.465160 -0.876963 
0.245688 -0.628342 0.312322 -0.141711 -0.483181 -0.863976 
0.242832 -0.620432 0.310839 -0.149452 -0.539827 -0.828403 
0.240372 -0.612576 0.309563 -0.159519 -0.558883 -0.813760 
0.237781 -0.604719 0.308212 -0.153451 -0.584574 -0.796698 
0.234127 -0.596733 0.306315 -0.147402 -0.624982 -0.766598 
0.229644 -0.588667 0.303984 -0.145023 -0.678211 -0.720416 
0.224364 -0.580516 0.301230 -0.126402 -0.721792 -0.680470 
0.218567 -0.572330 0.298218 -0.120201 -0.742133 -0.659388 
0.211939 -0.564067 0.294765 -0.091902 -0.779316 -0.619858 
0.204164 -0.555700 0.290721 -0.070364 -0.829932 -0.553409 
0.194857 -0.547197 0.285869 -0.029141 -0.864895 -0.501105 
0.184898 -0.538651 0.280683 -0.001560 -0.889042 -0.457825 
0.173175 -0.529962 0.274580 0.037376 -0.916166 -0.399055 
0.158525 -0.521003 0.266946 0.071059 -0.917109 -0.392253 
0.139381 -0.511631 0.256965 -0.000760 -0.912545 -0.408976 
0.121277 -0.502440 0.247537 -0.079741 -0.864519 -0.496236 
0.104786 -0.493482 0.238940 -0.189892 -0.778496 -0.598235 
0.105736 -0.486303 0.239445 -0.290443 -0.653247 -0.699223 
0.110441 -0.479491 0.241903 -0.376604 -0.478918 -0.792974 
0.118465 -0.472963 0.246088 -0.396211 -0.432875 -0.809713 
0.131308 -0.466857 0.252786 -0.430142 -0.336689 -0.837627 
-0.021603 -0.249013 0.173192 0.248300 -0.967535 0.047169 
-0.043325 -0.241252 0.161878 0.128711 -0.988551 0.078747 
-0.055875 -0.233870 0.155337 0.089516 -0.989963 0.109365 
-0.066937 -0.226579 0.149571 0.028198 -0.995447 0.091055 
-0.078103 -0.219332 0.143756 -0.030764 -0.995212 0.092782 
-0.088932 -0.212131 0.138116 -0.070719 -0.995960 0.055363 
-0.096565 -0.205057 0.134143 -0.095610 -0.995313 0.014546 
-0.104262 -0.198012 0.130129 -0.112465 -0.993380 -0.023448 
-0.112598 -0.190975 0.125787 -0.085254 -0.988760 -0.122820 
-0.120640 -0.183983 0.121601 -0.080349 -0.972378 -0.219149 
-0.129215 -0.177013 0.117130 -0.100234 -0.942682 -0.318284 
-0.136325 -0.170099 0.113428 -0.127214 -0.925649 -0.356358 
-0.143723 -0.163203 0.109580 -0.161437 -0.914889 -0.370022 
-0.152059 -0.156326 0.105238 -0.195743 -0.918474 -0.343647 
-0.157995 -0.149506 0.102146 -0.210500 -0.924657 -0.317332 
-0.162939 -0.142717 0.099568 -0.225842 -0.930792 -0.287442 
-0.169246 -0.135936 0.096292 -0.248824 -0.930758 -0.267910 
-0.175067 -0.129183 0.093257 -0.266200 -0.928082 -0.260388 
-0.179428 -0.122462 0.090988 -0.287494 -0.923100 -0.255414 
-0.183510 -0.115747 0.088866 -0.304297 -0.914941 -0.265119 
-0.187790 -0.109055 0.086636 -0.323799 -0.903316 -0.281382 
-0.192862 -0.102379 0.083994 -0.339893 -0.889825 -0.304445 
-0.197787 -0.095725 0.081434 -0.350089 -0.877957 -0.326543 
-0.200431 -0.089069 0.080055 -0.351607 -0.869667 -0.346487 
-0.202795 -0.082414 0.078828 -0.359075 -0.859900 -0.362822 
-0.205637 -0.075781 0.077351 -0.366566 -0.849919 -0.378507 
-0.208531 -0.069164 0.075849 -0.382324 -0.838322 -0.388648 
-0.211899 -0.062553 0.074093 -0.407760 -0.822267 -0.397000 
-0.215906 -0.055983 0.072008 -0.437921 -0.806821 -0.396566 
-0.218465 -0.049388 0.070682 -0.463210 -0.794571 -0.392548 
-0.220679 -0.042799 0.069527 -0.486220 -0.782865 -0.388219 
-0.221797 -0.036188 0.068947 -0.499034 -0.774045 -0.389643 
-0.223338 -0.029593 0.068146 -0.510695 -0.765788 -0.390846 
-0.224840 -0.023004 0.067374 -0.515249 -0.760385 -0.395390 
-0.226518 -0.016431 0.066496 -0.521070 -0.750360 -0.406752 
-0.228865 -0.009881 0.065284 -0.528774 -0.736910 -0.421145 
-0.233092 -0.003408 0.063081 -0.536080 -0.721127 -0.438857 
-0.236025 0.003095 0.061558 -0.545905 -0.701722 -0.457794 
-0.238397 0.009616 0.060326 -0.557238 -0.681419 -0.474504 
-0.240149 0.016142 0.059411 -0.578630 -0.656745 -0.483605 
-0.240025 0.022747 0.059476 -0.602968 -0.629753 -0.489735 
-0.239457 0.029376 0.059783 -0.630366 -0.607486 -0.483322 
-0.238053 0.036032 0.060514 -0.660463 -0.581724 -0.474750 
-0.237211 0.042676 0.060964 -0.690087 -0.560041 -0.458403 
-0.236966 0.049295 0.061090 -0.715976 -0.538941 -0.443760 
-0.237394 0.055877 0.060872 -0.740222 -0.516397 -0.430589 
-0.237774 0.062459 0.060677 -0.761921 -0.500069 -0.411591 
-0.238155 0.069040 0.060482 -0.777024 -0.478350 -0.409166 
-0.238336 0.075638 0.060396 -0.789474 -0.460388 -0.405924 
-0.238415 0.082234 0.060359 -0.800164 -0.443999 -0.403242 
-0.238224 0.088847 0.060458 -0.808132 -0.421882 -0.411019 
-0.237643 0.095482 0.060770 -0.818151 -0.394997 -0.417859 
-0.236621 0.102154 0.061303 -0.827189 -0.366041 -0.426350 
-0.234136 0.108927 0.062608 -0.835186 -0.333527 -0.437293 
-0.230600 0.115784 0.064448 -0.842018 -0.297759 -0.449828 
-0.226426 0.122701 0.066633 -0.847609 -0.256782 -0.464352 
-0.222592 0.129610 0.068638 -0.855730 -0.206511 -0.474426 
-0.219468 0.136474 0.070272 -0.860533 -0.158999 -0.483944 
-0.216428 0.143353 0.071855 -0.866473 -0.109470 -0.487074 
-0.212555 0.150299 0.073881 -0.869957 -0.064032 -0.488955 
-0.208445 0.157286 0.076025 -0.878290 -0.035313 -0.476822 
-0.203249 0.164384 0.078736 -0.888904 -0.023424 -0.457495 
-0.197399 0.171554 0.081794 -0.902049 -0.014237 -0.431399 
-0.190934 0.178796 0.085174 -0.918363 -0.012019 -0.395556 
-0.185101 0.186010 0.088214 -0.936009 -0.010020 -0.351833 
-0.181287 0.193062 0.090210 -0.949530 -0.013272 -0.313396 
-0.177775 0.200109 0.092046 -0.963216 -0.022220 -0.267810 
-0.174236 0.207161 0.093895 -0.978086 -0.031576 -0.205796 
-0.169872 0.214313 0.096175 -0.990232 -0.042818 -0.132689 
-0.165709 0.221457 0.098346 -0.997142 -0.061477 -0.043911 
-0.161970 0.228578 0.100304 -0.992811 -0.100461 0.065065 
-0.159320 0.235607 0.101684 -0.978521 -0.152101 0.139148 
-0.158027 0.242499 0.102368 -0.956180 -0.191766 0.221233 
-0.156978 0.249369 0.102914 -0.935045 -0.231626 0.268402 
-0.156495 0.256179 0.103168 -0.906436 -0.271238 0.323733 
-0.156259 0.262972 0.103299 -0.877972 -0.312121 0.362967 
-0.156116 0.269750 0.103374 -0.854460 -0.351012 0.383002 
-0.155801 0.276551 0.103544 -0.827608 -0.385517 0.407974 
-0.155814 0.283314 0.103542 -0.807278 -0.414552 0.420059 
-0.156076 0.290048 0.103415 -0.795175 -0.435939 0.421492 
-0.156281 0.296780 0.103307 -0.759930 -0.487619 0.429806 
-0.156756 0.303490 0.103065 -0.721862 -0.545462 0.425897 
-0.157532 0.310154 0.102665 -0.680322 -0.613124 0.401547 
-0.159628 0.316650 0.101578 -0.625341 -0.673788 0.393646 
-0.162797 0.322996 0.099929 -0.536806 -0.754009 0.378564 
-0.166881 0.329220 0.097798 -0.444429 -0.831900 0.332304 
-0.173958 0.335026 0.094119 -0.251435 -0.943174 0.217265 
-0.180161 0.340924 0.090885 -0.135997 -0.977690 0.160084 
-0.189118 0.346418 0.086215 -0.006777 -0.997850 0.065184 
-0.200169 0.351594 0.080463 0.046392 -0.998272 -0.036071 
-0.210645 0.356808 0.075000 0.024038 -0.995979 -0.086314 
-0.219273 0.362243 0.070502 -0.038491 -0.993477 -0.107345 
-0.226442 0.367853 0.066768 -0.132255 -0.983392 -0.124300 
-0.232982 0.373523 0.063366 -0.224403 -0.965486 -0.132216 
-0.238718 0.379292 0.060383 -0.326980 -0.934697 -0.139380 
-0.242386 0.385342 0.058467 -0.413005 -0.899781 -0.140789 
-0.245792 0.391423 0.056700 -0.493152 -0.854719 -0.162038 
-0.248858 0.397540 0.055103 -0.554777 -0.813629 -0.173868 
-0.251093 0.403773 0.053938 -0.606379 -0.772610 -0.188090 
-0.252970 0.410059 0.052970 -0.663938 -0.720747 -0.199280 
-0.253644 0.416520 0.052618 -0.699806 -0.683824 -0.206536 
-0.253863 0.423064 0.052505 -0.731622 -0.637285 -0.242071 
-0.252770 0.429813 0.053081 -0.772989 -0.578371 -0.260720 
-0.250967 0.436683 0.054029 -0.814910 -0.493720 -0.303584 
-0.243722 0.444471 0.057809 -0.841510 -0.376996 -0.386956 
0.290653 -0.664317 0.327141 -0.009142 -0.465580 -0.884958 
0.285462 -0.655971 0.324456 -0.014424 -0.510047 -0.860026 
0.279821 -0.647595 0.321530 -0.042117 -0.522088 -0.851851 
0.273558 -0.639156 0.318284 -0.057720 -0.531071 -0.845359 
0.268665 -0.630918 0.315751 -0.069232 -0.545376 -0.835328 
0.264358 -0.622773 0.313518 -0.104905 -0.562178 -0.820337 
0.259870 -0.614631 0.311193 -0.121608 -0.594565 -0.794799 
0.256095 -0.606585 0.309235 -0.127454 -0.619198 -0.774823 
0.251264 -0.598434 0.306738 -0.121552 -0.664929 -0.736950 
0.246126 -0.590255 0.304072 -0.120381 -0.712795 -0.690965 
0.240446 -0.582037 0.301128 -0.121695 -0.727191 -0.675563 
0.234004 -0.573752 0.297793 -0.100117 -0.768042 -0.632526 
0.226627 -0.565377 0.293965 -0.081767 -0.801703 -0.592104 
0.218108 -0.556904 0.289550 -0.054854 -0.849094 -0.525387 
0.209096 -0.548411 0.284870 -0.020174 -0.878212 -0.477846 
0.198470 -0.539781 0.279359 -0.003528 -0.895854 -0.444336 
0.186880 -0.531077 0.273347 0.029702 -0.916673 -0.398535 
0.172102 -0.522088 0.265683 0.053316 -0.915359 -0.399095 
0.153139 -0.512716 0.255843 0.039318 -0.910700 -0.411193 
0.131084 -0.503104 0.244397 -0.058846 -0.885820 -0.460285 
0.116993 -0.494379 0.237086 -0.174027 -0.770415 -0.613332 
0.119521 -0.487334 0.238405 -0.276276 -0.682329 -0.676831 
0.125102 -0.480582 0.241309 -0.372946 -0.502980 -0.779694 
0.134849 -0.474197 0.246373 -0.404392 -0.456391 -0.792575 
-0.013519 -0.249187 0.169479 0.266157 -0.963850 0.012427 
-0.037657 -0.241336 0.156949 0.169629 -0.983920 0.055936 
-0.051549 -0.233904 0.149744 0.103176 -0.991742 0.076181 
-0.062336 -0.226620 0.144151 0.019465 -0.996891 0.076365 
-0.072864 -0.219388 0.138687 -0.024588 -0.996472 0.080258 
-0.082058 -0.212231 0.133917 -0.070874 -0.996195 0.050722 
-0.090624 -0.205127 0.129476 -0.102730 -0.994588 0.015534 
-0.098919 -0.198051 0.125173 -0.122328 -0.992302 -0.019338 
-0.106792 -0.191030 0.121087 -0.109687 -0.991067 -0.075885 
-0.113948 -0.184044 0.117377 -0.095244 -0.979776 -0.175983 
-0.121351 -0.177083 0.113536 -0.109600 -0.968109 -0.225286 
-0.128576 -0.170159 0.109793 -0.130195 -0.956183 -0.262231 
-0.135732 -0.163257 0.106083 -0.156991 -0.947319 -0.279179 
-0.143282 -0.156386 0.102166 -0.172949 -0.942225 -0.286881 
-0.150514 -0.149545 0.098420 -0.192934 -0.942881 -0.271572 
-0.156317 -0.142734 0.095402 -0.202464 -0.946330 -0.251929 
-0.162078 -0.135951 0.092415 -0.229455 -0.940992 -0.248771 
-0.168744 -0.129193 0.088960 -0.259348 -0.935410 -0.240309 
-0.173433 -0.122456 0.086534 -0.283798 -0.927521 -0.243240 
-0.177491 -0.115741 0.084433 -0.310301 -0.916025 -0.254194 
-0.180663 -0.109033 0.082792 -0.334091 -0.903431 -0.268695 
-0.183511 -0.102339 0.081312 -0.353752 -0.890790 -0.285225 
-0.187861 -0.095671 0.079057 -0.366460 -0.877878 -0.308283 
-0.191912 -0.089017 0.076958 -0.374988 -0.866309 -0.329992 
-0.194921 -0.082362 0.075398 -0.380089 -0.856299 -0.349695 
-0.197492 -0.075714 0.074074 -0.382441 -0.848286 -0.366267 
-0.200666 -0.069081 0.072422 -0.386576 -0.841173 -0.378137 
-0.203230 -0.062455 0.071102 -0.402579 -0.830196 -0.385624 
-0.206160 -0.055846 0.069582 -0.418958 -0.820855 -0.388164 
-0.209821 -0.049267 0.067688 -0.446199 -0.805269 -0.390448 
-0.211764 -0.042656 0.066678 -0.468087 -0.794800 -0.386248 
-0.213775 -0.036060 0.065643 -0.491170 -0.780320 -0.387109 
-0.216001 -0.029473 0.064490 -0.513202 -0.764515 -0.390056 
-0.218159 -0.022900 0.063372 -0.524117 -0.754253 -0.395480 
-0.220049 -0.016320 0.062398 -0.529041 -0.744593 -0.407061 
-0.221451 -0.009731 0.061675 -0.537772 -0.729876 -0.421999 
-0.223581 -0.003181 0.060570 -0.547772 -0.714483 -0.435272 
-0.225659 0.003369 0.059494 -0.555889 -0.699509 -0.449083 
-0.228158 0.009895 0.058198 -0.566276 -0.683331 -0.460860 
-0.230356 0.016424 0.057061 -0.583171 -0.663052 -0.469335 
-0.231189 0.022998 0.056638 -0.601557 -0.643676 -0.473086 
-0.231414 0.029601 0.056521 -0.622413 -0.624320 -0.472045 
-0.230951 0.036228 0.056767 -0.649749 -0.602092 -0.464016 
-0.231212 0.042826 0.056639 -0.674572 -0.581941 -0.454201 
-0.232129 0.049391 0.056167 -0.701014 -0.560803 -0.440545 
-0.232662 0.055973 0.055888 -0.724985 -0.539593 -0.428062 
-0.233050 0.062562 0.055690 -0.748678 -0.512717 -0.420241 
-0.233217 0.069158 0.055609 -0.767372 -0.490084 -0.413472 
-0.233284 0.075756 0.055580 -0.780232 -0.467211 -0.415876 
-0.233261 0.082368 0.055594 -0.791373 -0.442145 -0.422185 
-0.233054 0.088988 0.055711 -0.800486 -0.417484 -0.430035 
-0.232066 0.095653 0.056226 -0.809432 -0.386683 -0.441924 
-0.230466 0.102364 0.057055 -0.816675 -0.357118 -0.453333 
-0.226454 0.109251 0.059141 -0.821371 -0.327595 -0.466938 
-0.222209 0.116170 0.061353 -0.824659 -0.290874 -0.485109 
-0.218231 0.123078 0.063423 -0.831280 -0.243826 -0.499521 
-0.215497 0.129911 0.064843 -0.840160 -0.200281 -0.504003 
-0.213202 0.136729 0.066038 -0.848625 -0.158522 -0.504684 
-0.210945 0.143547 0.067222 -0.858385 -0.110487 -0.500966 
-0.207851 0.150441 0.068833 -0.868374 -0.072575 -0.490572 
-0.204112 0.157403 0.070773 -0.883147 -0.046074 -0.466830 
-0.197573 0.164610 0.074174 -0.898835 -0.039449 -0.436511 
-0.190225 0.171906 0.077988 -0.917126 -0.034640 -0.397090 
-0.183323 0.179203 0.081580 -0.934984 -0.034462 -0.353012 
-0.179085 0.186280 0.083786 -0.948630 -0.038813 -0.313999 
-0.176607 0.193219 0.085073 -0.959304 -0.046829 -0.278467 
-0.174166 0.200165 0.086349 -0.973570 -0.056941 -0.221177 
-0.170856 0.207203 0.088067 -0.982917 -0.075032 -0.168052 
-0.166898 0.214309 0.090126 -0.991054 -0.098732 -0.089805 
-0.163022 0.221430 0.092144 -0.992549 -0.121678 -0.006325 
-0.160235 0.228452 0.093593 -0.985236 -0.156061 0.070396 
-0.158041 0.235428 0.094736 -0.970500 -0.195898 0.140549 
-0.156902 0.242305 0.095336 -0.950330 -0.234822 0.204280 
-0.156170 0.249137 0.095723 -0.926887 -0.272219 0.258410 
-0.155751 0.255939 0.095936 -0.900206 -0.311945 0.303838 
-0.155535 0.262716 0.096057 -0.880264 -0.342964 0.327888 
-0.155360 0.269495 0.096149 -0.857969 -0.378631 0.347171 
-0.155286 0.276266 0.096198 -0.841290 -0.400909 0.362634 
-0.155272 0.283029 0.096210 -0.822605 -0.434258 0.367071 
-0.155331 0.289777 0.096182 -0.809641 -0.462024 0.361961 
-0.155549 0.296510 0.096069 -0.786375 -0.509964 0.348640 
-0.156188 0.303190 0.095746 -0.745414 -0.563047 0.356842 
-0.157143 0.309831 0.095245 -0.704559 -0.610452 0.361864 
-0.159209 0.316321 0.094183 -0.658061 -0.673638 0.336405 
-0.161482 0.322788 0.093008 -0.567283 -0.766254 0.301737 
-0.164954 0.329079 0.091209 -0.488828 -0.832422 0.261002 
-0.169291 0.335251 0.088958 -0.352395 -0.917781 0.183019 
-0.174078 0.341337 0.086475 -0.204473 -0.972902 0.107954 
-0.182862 0.346870 0.081917 -0.095607 -0.995351 0.011680 
-0.192474 0.352251 0.076936 -0.017085 -0.997823 -0.063702 
-0.204079 0.357313 0.070908 0.012649 -0.990687 -0.135577 
-0.212704 0.362756 0.066437 -0.034762 -0.983810 -0.175814 
-0.220000 0.368356 0.062656 -0.101369 -0.976912 -0.188068 
-0.226504 0.374043 0.059280 -0.190140 -0.961349 -0.199143 
-0.232652 0.379750 0.056091 -0.286676 -0.931252 -0.224918 
-0.236669 0.385762 0.054010 -0.360243 -0.901057 -0.241501 
-0.240188 0.391828 0.052186 -0.455537 -0.855752 -0.245309 
-0.243346 0.397939 0.050551 -0.517211 -0.812238 -0.269745 
-0.245538 0.404179 0.049416 -0.583513 -0.762633 -0.279114 
-0.247334 0.410488 0.048488 -0.634965 -0.713306 -0.296674 
-0.248150 0.416933 0.048067 -0.675583 -0.666275 -0.315700 
-0.248033 0.423530 0.048129 -0.714611 -0.613197 -0.336633 
-0.247201 0.430249 0.048566 -0.746222 -0.555181 -0.367326 
-0.245210 0.437156 0.049608 -0.778489 -0.490124 -0.392090 
-0.236321 0.445226 0.054227 -0.787029 -0.387867 -0.479734 
0.308491 -0.643354 0.327795 -0.011579 -0.573394 -0.819198 
0.297385 -0.634239 0.322060 -0.033039 -0.600214 -0.799157 
0.287276 -0.625302 0.316840 -0.044841 -0.595422 -0.802162 
0.280880 -0.616873 0.313536 -0.058507 -0.624335 -0.778964 
0.274656 -0.608489 0.310320 -0.069244 -0.657752 -0.750046 
0.269125 -0.600219 0.307466 -0.081713 -0.682287 -0.726504 
0.263580 -0.591964 0.304604 -0.094363 -0.725122 -0.682124 
0.256817 -0.583587 0.301118 -0.091245 -0.743641 -0.662323 
0.249264 -0.575147 0.297218 -0.081901 -0.780108 -0.620262 
0.241498 -0.566710 0.293205 -0.066118 -0.821926 -0.565745 
0.232658 -0.558178 0.288637 -0.044898 -0.850365 -0.524276 
0.223223 -0.549615 0.283771 -0.029834 -0.876203 -0.481019 
0.212081 -0.540903 0.278011 -0.002372 -0.898720 -0.438517 
0.200608 -0.532200 0.272084 0.032910 -0.917465 -0.396455 
0.186462 -0.523255 0.264779 0.044245 -0.919353 -0.390938 
0.167851 -0.513906 0.255165 0.045394 -0.912756 -0.405977 
0.144543 -0.504144 0.243118 -0.025960 -0.878245 -0.477506 
0.131464 -0.495493 0.236362 -0.177239 -0.798363 -0.575504 
0.133746 -0.488410 0.237551 -0.208879 -0.770341 -0.602449 
0.140517 -0.481749 0.241049 -0.296600 -0.592972 -0.748607 
0.153849 -0.475678 0.247949 -0.412558 -0.352814 -0.839834 
0.004243 -0.249707 0.170740 0.355852 -0.933599 -0.042002 
-0.032440 -0.241407 0.151785 0.187940 -0.982038 0.016788 
-0.046919 -0.233952 0.144303 0.104710 -0.992187 0.067832 
-0.057847 -0.226660 0.138655 0.042331 -0.997650 0.053906 
-0.068582 -0.219422 0.133114 -0.019841 -0.998094 0.058459 
-0.077729 -0.212257 0.128384 -0.069125 -0.996763 0.041063 
-0.085710 -0.205167 0.124262 -0.112528 -0.993601 0.009791 
-0.093410 -0.198107 0.120289 -0.130686 -0.991306 -0.015304 
-0.101729 -0.191062 0.115997 -0.133760 -0.989827 -0.048511 
-0.108936 -0.184079 0.112271 -0.129266 -0.983316 -0.127994 
-0.115690 -0.177124 0.108787 -0.136083 -0.977028 -0.164009 
-0.122421 -0.170198 0.105306 -0.140957 -0.963051 -0.229487 
-0.129080 -0.163304 0.101872 -0.160729 -0.955578 -0.247054 
-0.135980 -0.156425 0.098307 -0.168420 -0.954104 -0.247627 
-0.143048 -0.149577 0.094658 -0.175809 -0.955248 -0.237897 
-0.149336 -0.142758 0.091408 -0.192506 -0.952798 -0.234775 
-0.155572 -0.135968 0.088192 -0.217061 -0.949450 -0.226787 
-0.162273 -0.129195 0.084736 -0.250753 -0.941069 -0.226961 
-0.167600 -0.122458 0.081981 -0.282915 -0.930716 -0.231791 
-0.172144 -0.115736 0.079638 -0.316391 -0.916653 -0.244218 
-0.175286 -0.109028 0.078020 -0.343270 -0.902734 -0.259303 
-0.177734 -0.102329 0.076757 -0.374936 -0.885833 -0.273356 
-0.179866 -0.095634 0.075653 -0.384960 -0.876200 -0.289967 
-0.182230 -0.088948 0.074441 -0.396751 -0.865514 -0.305736 
-0.185496 -0.082286 0.072753 -0.405894 -0.855062 -0.322677 
-0.189612 -0.075646 0.070631 -0.405921 -0.847700 -0.341516 
-0.193805 -0.069021 0.068470 -0.405542 -0.842296 -0.355070 
-0.197309 -0.062405 0.066662 -0.409262 -0.834296 -0.369397 
-0.200427 -0.055795 0.065047 -0.418490 -0.827193 -0.374993 
-0.203399 -0.049193 0.063515 -0.439738 -0.814572 -0.378292 
-0.206247 -0.042598 0.062053 -0.461126 -0.799319 -0.385296 
-0.208648 -0.036002 0.060813 -0.483490 -0.783315 -0.390713 
-0.210464 -0.029407 0.059875 -0.507860 -0.765044 -0.395963 
-0.212218 -0.022811 0.058977 -0.526983 -0.747652 -0.404112 
-0.213902 -0.016224 0.058113 -0.537938 -0.732378 -0.417428 
-0.215242 -0.009627 0.057421 -0.544905 -0.719443 -0.430676 
-0.216181 -0.003024 0.056938 -0.547061 -0.710770 -0.442188 
-0.216574 0.003596 0.056737 -0.555463 -0.696499 -0.454258 
-0.218103 0.010169 0.055952 -0.565803 -0.685395 -0.458370 
-0.219856 0.016727 0.055052 -0.579177 -0.673795 -0.458864 
-0.222007 0.023262 0.053938 -0.593505 -0.656311 -0.465841 
-0.223398 0.029828 0.053231 -0.608342 -0.642078 -0.466538 
-0.224563 0.036393 0.052626 -0.635129 -0.620294 -0.460269 
-0.225717 0.042951 0.052037 -0.659263 -0.599310 -0.454093 
-0.226960 0.049510 0.051403 -0.687405 -0.576626 -0.441563 
-0.227648 0.056083 0.051045 -0.715322 -0.546929 -0.434954 
-0.227937 0.062679 0.050904 -0.735483 -0.520663 -0.433561 
-0.227603 0.069308 0.051075 -0.752220 -0.494493 -0.435480 
-0.227038 0.075950 0.051370 -0.765760 -0.466582 -0.442623 
-0.225662 0.082646 0.052087 -0.776464 -0.437561 -0.453479 
-0.225720 0.089258 0.052062 -0.788334 -0.407171 -0.461238 
-0.224371 0.095962 0.052766 -0.794584 -0.378007 -0.475129 
-0.221771 0.102750 0.054112 -0.799281 -0.350294 -0.488309 
-0.217506 0.109659 0.056317 -0.803783 -0.317058 -0.503396 
-0.214440 0.116501 0.057914 -0.807602 -0.283107 -0.517331 
-0.211528 0.123349 0.059415 -0.816219 -0.242915 -0.524194 
-0.209669 0.130128 0.060384 -0.827398 -0.207461 -0.521892 
-0.208012 0.136901 0.061249 -0.840852 -0.163688 -0.515922 
-0.206016 0.143702 0.062285 -0.854585 -0.120737 -0.505081 
-0.202839 0.150604 0.063928 -0.872612 -0.092455 -0.479583 
-0.198992 0.157582 0.065923 -0.888236 -0.073515 -0.453467 
-0.191780 0.164849 0.069653 -0.908333 -0.061956 -0.413631 
-0.183662 0.172215 0.073852 -0.927733 -0.062842 -0.367917 
-0.178305 0.179382 0.076628 -0.944781 -0.065421 -0.321107 
-0.175962 0.186299 0.077846 -0.956607 -0.062236 -0.284653 
-0.173792 0.193207 0.078970 -0.967144 -0.079845 -0.241367 
-0.171327 0.200154 0.080249 -0.978191 -0.094781 -0.184821 
-0.167929 0.207198 0.082011 -0.983634 -0.123389 -0.131299 
-0.164160 0.214289 0.083959 -0.987886 -0.142027 -0.062536 
-0.160723 0.221364 0.085742 -0.985064 -0.171496 0.015463 
-0.158414 0.228342 0.086943 -0.977726 -0.197113 0.072089 
-0.156834 0.235248 0.087761 -0.961486 -0.230828 0.149211 
-0.155887 0.242095 0.088257 -0.944682 -0.265471 0.192619 
-0.155282 0.248913 0.088572 -0.922749 -0.306151 0.234104 
-0.154897 0.255706 0.088775 -0.901251 -0.339847 0.268795 
-0.154674 0.262485 0.088893 -0.882446 -0.371606 0.288441 
-0.154541 0.269256 0.088971 -0.865913 -0.396631 0.304758 
-0.154208 0.276049 0.089141 -0.852912 -0.420730 0.309074 
-0.154095 0.282813 0.089210 -0.836972 -0.450176 0.311157 
-0.154132 0.289568 0.089187 -0.818619 -0.481111 0.313682 
-0.154550 0.296270 0.088982 -0.799057 -0.517768 0.305654 
-0.155250 0.302941 0.088619 -0.772198 -0.560725 0.298830 
-0.156146 0.309583 0.088167 -0.723695 -0.626826 0.288712 
-0.157853 0.316119 0.087282 -0.675157 -0.690908 0.258474 
-0.159953 0.322602 0.086202 -0.609757 -0.760540 0.223107 
-0.162497 0.329014 0.084892 -0.514891 -0.835869 0.190293 
-0.166054 0.335284 0.083058 -0.397104 -0.906761 0.141757 
-0.169952 0.341493 0.081045 -0.291052 -0.953962 0.072434 
-0.177938 0.347132 0.076919 -0.166171 -0.985404 -0.036982 
-0.186522 0.352657 0.072485 -0.072878 -0.990883 -0.113318 
-0.196300 0.357985 0.067430 -0.016287 -0.984891 -0.172411 
-0.206046 0.363283 0.062399 -0.025775 -0.974441 -0.223162 
-0.213461 0.368869 0.058567 -0.078816 -0.966662 -0.243627 
-0.220013 0.374554 0.055185 -0.154363 -0.947392 -0.280397 
-0.226032 0.380293 0.052076 -0.239615 -0.925324 -0.293873 
-0.230460 0.386252 0.049790 -0.318209 -0.893178 -0.317771 
-0.233703 0.392364 0.048121 -0.400651 -0.852799 -0.334984 
-0.237233 0.398428 0.046300 -0.472761 -0.812423 -0.341273 
-0.239397 0.404685 0.045180 -0.538644 -0.759813 -0.364071 
-0.241048 0.411015 0.044333 -0.592598 -0.706143 -0.387546 
-0.242081 0.417438 0.043803 -0.644053 -0.646874 -0.408352 
-0.241509 0.424110 0.044101 -0.671058 -0.606548 -0.426360 
-0.240350 0.430882 0.044701 -0.707542 -0.550395 -0.443224 
-0.238356 0.437805 0.045736 -0.736807 -0.462966 -0.492726 
-0.226556 0.446360 0.051845 -0.738855 -0.362316 -0.568173 
0.309335 -0.620056 0.319628 -0.001977 -0.633188 -0.773997 
0.296554 -0.610810 0.313056 -0.038609 -0.664580 -0.746220 
0.287611 -0.602078 0.308463 -0.048786 -0.699622 -0.712847 
0.280914 -0.593657 0.305018 -0.048352 -0.725670 -0.686343 
0.273137 -0.585133 0.301024 -0.072111 -0.748397 -0.659320 
0.264943 -0.576591 0.296804 -0.055663 -0.788688 -0.612269 
0.256139 -0.568006 0.292280 -0.042895 -0.820618 -0.569866 
0.246948 -0.559421 0.287554 -0.029607 -0.853758 -0.519829 
0.236593 -0.550730 0.282229 -0.019935 -0.870567 -0.491648 
0.225279 -0.541980 0.276407 0.008419 -0.892235 -0.451495 
0.213251 -0.533199 0.270220 0.030513 -0.906618 -0.420848 
0.199953 -0.524332 0.263381 0.029296 -0.913846 -0.405002 
0.182792 -0.515109 0.254550 0.055386 -0.919385 -0.389443 
